//X Y Z
57.31370163 3.68917871 12.99753475
61.58191299 5.18565273 -22.01572418
56.22312546 3.30681324 16.65779686
62.83290100 5.62426090 -16.14221573
61.38808060 5.11769247 16.97620010
64.59885406 6.24341774 -16.81880188
63.71871185 5.93483400 -22.59429550
59.12239456 4.32332230 6.47725677
58.55342865 4.12383842 6.03889561
67.74488831 7.34644508 -22.13775253
76.51960754 10.42294121 -21.67841721
65.25009918 6.47175121 -22.94599342
68.83205414 7.72761631 -7.55323792
58.29078293 4.03175354 -20.21583748
68.66531372 7.66915512 -4.60694313
58.19403076 3.99783087 -8.41518402
55.90638351 3.19576073 16.67895889
71.25957489 8.57872581 -16.52563095
67.56513977 7.28342342 4.47902870
69.10051727 7.82174206 -6.86511612
78.24848938 11.02910328 -24.71897697
63.52135086 5.86563730 -18.03258133
74.60105133 9.75027752 -7.90979004
56.18590927 3.29376554 0.63199484
73.94166565 9.51908970 -9.07156181
59.70040131 4.52597713 2.72786236
63.24476242 5.76866198 -9.65891361
71.51814270 8.66938305 -21.62529373
66.27011108 6.82937431 -9.25890350
58.81473160 4.21545362 16.60805130
58.07410812 3.95578504 -23.70606804
69.41097260 7.93058968 -3.76653099
69.60183716 7.99750710 -0.90740585
61.78768158 5.25779676 -24.31221390
56.01217270 3.23285246 -12.18525982
64.05889130 6.05410194 2.17877960
76.70874786 10.48925400 -25.40280533
67.33061218 7.20119667 -18.49273682
70.52893066 8.32255650 -12.06160927
77.00588989 10.59343719 -16.84951019
56.15825653 3.28407145 -4.85040474
65.16690826 6.44258213 3.92741585
74.55118561 9.73279381 -13.04391479
81.31726074 12.10503960 -23.64218140
61.72758102 5.23672485 -3.19631481
68.47273254 7.60163403 -13.30835724
68.08593750 7.46602249 -7.36453247
59.78235245 4.55471039 0.50613499
59.72821045 4.53572750 -5.19692421
58.62145233 4.14768934 -13.42636490
55.57900238 3.08097744 17.88698769
61.16300964 5.03878117 -19.41933823
65.38139343 6.51778603 -23.68704033
56.22743607 3.30832577 -18.56119347
55.68446350 3.11795425 -15.85316944
69.02984619 7.79696274 -2.52197266
75.11836243 9.93165112 -11.90090179
68.11796570 7.47724915 -9.57691002
68.76263428 7.70327663 -3.43590164
79.90369415 11.60943127 -20.08217430
80.87853241 11.95121765 -24.81671524
64.74795532 6.29569340 -3.19917583
60.49359131 4.80407715 -11.15482521
68.94105530 7.76583385 -25.32525444
68.17843628 7.49845219 -23.36999321
77.74011230 10.85086060 -25.02833939
64.78259277 6.30784082 -23.93654823
72.61484528 9.05389595 -22.36132050
55.61733627 3.09441805 19.07390213
68.63603210 7.65888882 -19.73845291
61.11705780 5.02266979 3.44829178
62.49699783 5.50648880 -1.52878952
63.78384399 5.95766926 11.33952236
59.25787735 4.37082529 -14.71566772
76.97178650 10.58147717 -22.51861763
59.68396759 4.52021551 15.06732941
59.98710632 4.62649870 -4.09742069
76.64257050 10.46605206 -24.82231522
65.31904602 6.49592400 -14.69675446
57.01734543 3.58527493 -5.43927479
63.89958572 5.99824810 10.22360802
64.75627136 6.29861164 -18.67602348
80.03671265 11.65606785 -22.99705505
67.65001678 7.31318283 -0.08296394
57.64542770 3.80548668 -20.18268204
57.15875244 3.63485289 17.22962379
73.22512817 9.26786709 -21.64410591
61.14215851 5.03147173 -26.55831528
59.59051895 4.48745155 -4.23993492
69.54396057 7.97721767 -10.11417198
59.85873795 4.58149242 -24.88066673
58.74320602 4.19037724 -15.71979332
55.77901077 3.15110445 -21.64181137
77.41129303 10.73557281 -21.32353592
64.67300415 6.26941681 -17.46451950
64.12936401 6.07881165 -17.71380234
55.83451080 3.17056155 2.10849023
67.20976257 7.15882492 -8.38548088
61.06960297 5.00603199 -13.97950745
62.56790161 5.53134727 5.96557999
57.74165344 3.83922315 17.69785690
57.02526855 3.58805180 19.17759323
56.55929565 3.42467737 23.82523346
76.71061707 10.48991108 -18.47150803
66.37801361 6.86720848 7.01330948
61.41446304 5.12694263 -0.67872620
59.21036148 4.35416508 11.27162552
75.50021362 10.06553268 -16.10326195
70.82424927 8.42609787 -2.78592300
74.29698181 9.64366722 -25.26392365
67.89071655 7.39757442 -19.75660324
73.36820984 9.31803322 -8.14382362
65.60176086 6.59504604 -20.29707336
74.68185425 9.77860832 -14.82929611
65.75091553 6.64734173 -8.65528679
76.80630493 10.52346039 -14.28474808
59.15068054 4.33324099 -24.96581268
60.17723846 4.69316053 9.26421165
63.47684860 5.85003281 9.17927456
56.26288986 3.32075644 -23.95781898
75.06890106 9.91430855 -13.24092484
71.31753540 8.59904766 -16.93688202
55.51101685 3.05714226 11.82778835
60.10100937 4.66643429 -5.16357994
61.50511551 5.15872669 -17.22985458
63.18519592 5.74777842 -16.52819824
70.72232819 8.39036179 -8.80965614
71.26059723 8.57908440 -16.09081268
61.93221664 5.30847359 -14.15230274
56.53502655 3.41616797 14.05634689
57.35897064 3.70505214 -15.42117977
71.25515747 8.57717800 -8.59085464
68.41030884 7.57974911 -20.21685410
61.30022049 5.08688831 13.36511040
67.59109497 7.29252434 -12.19747734
59.22729111 4.36009979 20.18358803
56.67277527 3.46446562 -10.64665985
65.23348999 6.46592903 -18.70804024
61.22185516 5.05941296 9.83224964
66.89317322 7.04782677 -4.59886742
67.66659546 7.31899548 -7.59399605
71.54925537 8.68029213 -8.28638840
64.30187225 6.13929272 -5.72894287
72.84601593 9.13494682 -23.59570312
71.63845062 8.71156216 -20.68167305
63.26791763 5.77678013 3.85496235
55.31361389 2.98793173 -27.12603188
59.63542175 4.50319624 -7.98633194
69.63156128 8.00792980 1.50705910
59.03244400 4.29178715 -25.06391335
62.16950989 5.39167023 -12.48981380
65.54228210 6.57419205 -7.86627579
72.32656860 8.95282459 -9.49964523
56.55744171 3.42402697 0.07285690
55.41271210 3.02267599 -18.10430717
56.88990021 3.54059219 -6.74925423
56.18994141 3.29517889 -1.02568841
66.49108124 6.90685225 -21.65983200
58.29996872 4.03497410 -13.69523239
56.04620743 3.24478507 -15.62486553
71.35143280 8.61093140 -14.08725071
61.52720642 5.16647148 11.26895905
72.20872498 8.91150761 -24.26815796
56.37665176 3.36064172 -23.97181320
74.52639771 9.72410297 -25.42106819
61.69165421 5.22412872 -14.59281445
59.17786026 4.34276915 2.77462959
56.29054642 3.33045340 -21.31575775
62.86668015 5.63610220 0.41003227
74.25000000 9.62719536 -23.23767090
62.62196350 5.55030298 -3.34561157
60.23563004 4.71363401 -16.97809029
80.69448853 11.88669014 -24.09177971
66.33967590 6.85376549 -0.21480179
56.80480576 3.51075697 -11.51123905
72.11591339 8.87896538 -4.11604118
66.75193787 6.99830914 -19.50189400
60.17595673 4.69271278 -17.86813354
56.99564743 3.57766819 -6.57338142
65.22448730 6.46277046 8.20853615
66.07292938 6.76024103 -18.61233902
61.58822250 5.18786526 -26.70071220
65.10526276 6.42097139 -21.45382500
77.09716034 10.62543488 -12.28580666
57.40770721 3.72213793 16.91555786
69.24316406 7.87175465 0.44278717
64.37015533 6.16323471 -6.89424896
59.84211349 4.57566452 -11.42876911
73.53821564 9.37763786 -17.27526474
60.53244400 4.81769943 10.94952011
55.29611588 2.98179650 -22.75049400
64.38356018 6.16793442 -10.43021774
56.63768005 3.45216179 -5.53061104
58.99582672 4.27894640 13.68181992
68.74542236 7.69724083 1.29060745
58.35098648 4.05286217 -26.02003860
59.94290161 4.61099911 12.84700966
57.47345352 3.74519062 -9.33129978
67.83940887 7.37958622 -1.30792427
70.61000061 8.35098076 -0.92160416
58.60128403 4.14061689 17.45743179
66.38553619 6.86984634 -26.42280769
56.83774948 3.52230740 -17.75808334
68.45217896 7.59442997 -14.07380295
80.23960876 11.72720718 -19.23289680
58.12158966 3.97243214 20.81100464
68.64025879 7.66037083 -4.75979233
73.77066040 9.45913410 -11.39072227
69.19236755 7.85394382 -4.71015167
64.53158569 6.21983242 -14.46102905
60.15334702 4.68478537 -25.14591217
61.65826035 5.21242142 -16.11786270
70.44573975 8.29338932 -22.64209557
58.16561890 3.98786831 16.78117371
58.97834396 4.27281666 10.68714333
55.87735748 3.18558383 -0.05022550
73.38236237 9.32299423 -24.17635536
72.86489105 9.14156437 -21.63262367
58.31320953 4.03961706 -17.91268730
73.99063110 9.53625965 -10.74934769
74.54824829 9.73176575 -17.90929794
57.12797165 3.62406111 -22.13472366
60.43152237 4.78231668 -21.91810989
75.48472595 10.06010151 -12.28144836
60.80266953 4.91244364 -23.26257515
73.00917053 9.19215012 -25.88900185
55.34568024 2.99917507 -24.27349281
57.86343384 3.88192058 -19.58979988
56.91040802 3.54778266 -3.04231739
68.47792053 7.60345268 -23.99199677
62.53076172 5.51832628 12.58243561
66.22447205 6.81337261 7.99832726
72.18098450 8.90177917 -10.53878403
57.58684540 3.78494501 8.57433891
75.40772247 10.03310394 -14.69515991
79.47564697 11.45935345 -21.81983566
77.75814819 10.85718536 -18.99045753
64.96635437 6.37226582 0.42717361
61.69969559 5.22694921 -25.06357956
66.91084290 7.05402279 -2.71858215
72.37664795 8.97038364 -24.79692078
66.09083557 6.76651955 3.09045601
60.09449387 4.66415071 -12.65248680
61.14639282 5.03295422 4.00487995
64.27747345 6.13073921 -14.05845642
75.53512573 10.07777214 -17.28684998
66.55205536 6.92822790 -11.60828018
62.63221359 5.55389595 -9.35811329
63.61885834 5.89982319 -13.60989380
67.89250946 7.39820194 -16.48028755
56.66973877 3.46340108 -4.80469036
56.16200256 3.28538465 -5.07692146
57.21356201 3.65406895 9.82071495
56.59940720 3.43874240 -16.11530876
68.50198364 7.61188984 -5.45935249
70.10302734 8.17323017 -26.01204300
77.14532471 10.64232159 -24.80651474
59.66300583 4.51286602 -2.14181042
80.17096710 11.70314026 -24.52922821
67.74983978 7.34818268 -10.11180782
71.65046692 8.71577740 -9.16048431
59.03908920 4.29411697 -22.99280548
69.99808502 8.13643742 -15.59557724
60.32990265 4.74668598 7.36621094
61.36912537 5.11104679 7.05818558
62.13581467 5.37985611 -14.08235741
73.94969940 9.52190876 -8.77565193
67.37963104 7.21838379 0.19573021
61.64871597 5.20907497 -27.12026787
71.49266052 8.66044807 -21.93020058
68.28112793 7.53445625 -4.68221092
64.08917999 6.06472111 -4.99577332
78.26774597 11.03585529 -17.02182770
61.85994720 5.28313351 -9.16516781
76.79493713 10.51947403 -21.12035751
56.66328049 3.46113634 -6.21376467
61.80568314 5.26410770 -6.99647427
74.68448639 9.77953148 -11.63057137
58.22591400 4.00900936 -8.36622429
57.25637436 3.66908121 -21.40830231
79.54096985 11.48225784 -22.26731873
79.39167786 11.42991543 -22.06760025
61.52112961 5.16434097 12.68774319
58.82083511 4.21759319 9.65337276
66.50447083 6.91154480 -14.51413536
81.69116974 12.23613739 -21.55154991
80.86242676 11.94557381 -24.11497879
55.41852188 3.02471209 12.58809757
55.29920197 2.98287678 15.93307972
65.92881775 6.70971584 -19.93444252
62.40357971 5.47373581 -19.77436066
60.65567017 4.86090279 -4.85904503
57.49458694 3.75260067 -12.54681396
66.32125092 6.84730625 -15.77025604
62.69301224 5.57521439 -26.82786560
59.11101913 4.31933403 3.80416012
69.81753540 8.07313442 -25.74253654
61.57558060 5.18343258 -19.46015549
56.07753372 3.25576878 -23.86125183
68.24041748 7.52018261 -6.99901962
66.02191162 6.74235439 5.80896759
59.67865753 4.51835299 12.78410625
71.60723877 8.70062160 -20.58482933
56.81953049 3.51591873 23.01388741
64.88880157 6.34507751 -15.11271858
70.36383057 8.26467133 -17.98921013
63.90427399 5.99989223 5.26069450
77.50218964 10.76744366 -14.91942978
73.23968506 9.27297115 -5.36336327
57.64914322 3.80678964 -25.31984329
80.74627686 11.90485001 -21.02226257
70.85324860 8.43626404 -23.13162422
57.91604614 3.90036678 -3.07773542
67.87420654 7.39178848 -24.79372215
55.64257812 3.10326910 -22.81911469
59.31628418 4.39130163 7.49026775
61.21838379 5.05819511 -10.46187496
57.79634476 3.85839987 -21.76895714
63.33460999 5.80016422 -14.80657959
74.09435272 9.57262421 -20.15086174
64.26998901 6.12811518 7.97881508
75.71150970 10.13961315 -16.21365547
57.73572540 3.83714485 -12.77433586
56.25938034 3.31952453 15.49384785
76.13043213 10.28649330 -22.15167809
57.28144836 3.67787170 -9.33960533
73.55364227 9.38304710 -22.39609337
56.38192368 3.36248970 9.66347694
60.20346832 4.70235634 17.68065643
65.62954712 6.60478878 0.94563484
69.00988770 7.78996468 -12.78054714
65.49497986 6.55760717 -6.96268272
70.58359528 8.34172153 -10.26759338
69.80516052 8.06879616 -7.22644043
57.12181854 3.62190413 -21.29285622
60.30147552 4.73671961 -10.99076939
57.26468658 3.67199469 -10.19505501
57.01249313 3.58357382 -7.00297689
56.45432281 3.38787341 24.42505836
69.28659821 7.88698196 -10.80109215
74.38653564 9.67506790 -24.89838791
70.39240265 8.27468777 -22.04685211
58.49163055 4.10217190 13.52627850
56.71305084 3.47858500 18.46448135
56.59335709 3.43662024 2.33836985
59.40402222 4.42206573 -18.25932312
59.66329956 4.51296902 -5.30290890
73.17756653 9.25119019 -23.82148933
70.72660828 8.39186192 -16.75937843
66.86221313 7.03697205 -15.57242203
75.32944489 10.00565815 -19.27188873
61.61325073 5.19664001 -11.15528107
56.52384186 3.41224909 -7.96917057
60.23309326 4.71274281 -0.63508224
76.54302216 10.43115044 -22.17960167
71.14915466 8.54001236 -13.34885788
65.91401672 6.70452499 1.19912338
65.78915405 6.66074944 4.59919548
58.87966156 4.23821974 -15.46671677
64.98661041 6.37936878 -3.57514191
63.48154831 5.85168266 -15.30033493
63.93718338 6.01143074 -9.76781845
74.00315857 9.54065037 -13.67116165
67.25473785 7.17459488 -26.16918755
71.09707642 8.52175236 -9.30924988
65.17597198 6.44576120 -23.92813301
77.93796539 10.92022991 -22.48963928
57.48041916 3.74763131 13.55355453
59.30015945 4.38564968 -9.47093201
64.62245178 6.25169086 -10.35400200
64.83807373 6.32729101 -8.90101624
71.22931671 8.56811619 -6.30311203
78.89199829 11.25472164 -17.23600388
55.53347778 3.06501770 -1.17635977
68.48387146 7.60553932 -10.65131283
61.43124771 5.13282728 -7.12404537
59.21013641 4.35408545 20.41956329
55.51355743 3.05803180 20.82169914
59.56565857 4.47873688 -20.02786446
56.42137527 3.37632251 -1.71550465
64.42713165 6.18321228 -25.16551208
66.39705658 6.87388372 -6.58262730
75.15753174 9.94538307 -20.84824562
74.41162109 9.68386173 -19.91240311
58.99106598 4.27727890 -15.74694633
67.05084991 7.10311031 -1.39455414
57.35093689 3.70223379 22.58830452
57.24780655 3.66607523 9.74238968
60.99162292 4.97869110 13.61977673
69.69038391 8.02855492 -20.18590736
58.84959793 4.22767878 -15.36723232
60.32757568 4.74587107 -19.35141563
55.58097839 3.08167052 23.98375320
61.81367874 5.26691055 7.49857426
72.80722809 9.12134743 -13.50883102
68.20745850 7.50862789 -2.38511276
58.84795380 4.22710133 18.50055313
80.04313660 11.65832138 -21.66740036
76.88451385 10.55087948 -25.25362015
80.83222961 11.93498325 -22.25703049
68.17915344 7.49870300 3.32986450
62.48414993 5.50198364 1.95791817
63.56312561 5.88028383 -26.68300247
61.01854324 4.98812914 17.13241005
56.28966141 3.33014297 -6.01468325
55.97236633 3.21889424 4.47353077
56.17981339 3.29162836 -7.90620518
60.75049210 4.89414787 -4.31859779
82.90716553 12.66247654 -23.07904625
64.22875977 6.11366081 -10.44908524
66.49463654 6.90809536 -18.42579079
57.35272217 3.70286059 -1.67659020
75.06254578 9.91207981 -14.93568802
57.58680725 3.78493237 3.90531445
77.03044891 10.60204697 -17.52657318
65.42374420 6.53263283 -24.54000282
68.97066498 7.77621460 -17.71819687
58.76751328 4.19890022 -16.28142166
64.28263855 6.13255024 -15.73307228
64.29227448 6.13592911 -16.66513252
70.80218506 8.41836071 -7.89603424
56.47920609 3.39659762 18.99754333
59.30606079 4.38771963 -17.90222740
55.91224670 3.19781637 20.05163002
56.48807907 3.39970875 16.87568665
78.34214783 11.06193829 -19.60181808
70.19960022 8.20708847 -2.94046783
65.14552307 6.43508720 -23.10625458
59.96555328 4.61894274 -20.67933846
63.69783020 5.92751122 -10.03456879
68.84243774 7.73125744 -26.17759132
71.16847992 8.54678822 -17.16880035
63.44409561 5.83855057 -18.86859512
57.17190552 3.63946342 -2.46510339
56.60889816 3.44206977 -20.06303215
62.33788300 5.45070362 -26.25538254
65.71074677 6.63325834 2.57600594
58.04928207 3.94707990 -3.24335241
59.15755844 4.33565235 -9.25262451
74.82957458 9.83039856 -23.19813156
63.48491287 5.85286045 3.35420990
66.24432373 6.82033539 -16.87717819
55.53235626 3.06462359 20.18517113
61.03968811 4.99554348 12.71801376
70.71755981 8.38868999 -21.84080505
81.44660187 12.15038872 -24.80415726
58.20198059 4.00061893 -20.78591537
68.02799225 7.44570541 -14.27204323
56.33811951 3.34713125 26.54135704
74.67628479 9.77665615 -10.42682648
61.63668060 5.20485401 11.16235638
56.61428070 3.44395757 -20.77847099
57.28021240 3.67743754 9.97737503
80.01482391 11.64839458 -19.61707687
64.88220978 6.34276581 -7.27622986
57.33056641 3.69509268 -10.31240177
57.90487289 3.89644861 1.60060167
55.37643814 3.00995684 23.24318314
58.59319687 4.13778305 -26.19861031
70.15001678 8.18970585 -19.07251167
61.79561996 5.26058054 -21.63998413
56.26594925 3.32182789 20.41821098
60.46287918 4.79330921 4.38329220
70.74294281 8.39759064 -3.78624344
65.69442749 6.62753582 -23.30142975
60.94749832 4.96322060 16.80932426
57.62375259 3.79788613 4.82549191
75.45507812 10.04970551 -24.25652313
67.04059601 7.09951496 1.14929962
56.04090881 3.24292684 5.43348503
76.74185181 10.50086117 -12.64442444
60.50354767 4.80756760 8.74160385
58.46297073 4.09212303 3.07083416
81.33946228 12.11282539 -21.97379303
65.75966644 6.65041161 -26.30206871
76.77802277 10.51354408 -17.72647095
62.80036545 5.61285257 -0.90097427
65.98984528 6.73111439 -24.62729454
63.92760086 6.00807047 -9.63603973
71.28810883 8.58873081 -2.12311554
65.98574829 6.72967529 -5.37970924
64.84701538 6.33042717 -1.51041031
70.67835999 8.37494755 -3.97851562
56.80979919 3.51250792 -5.35003376
63.37691498 5.81499624 8.11494350
60.87700653 4.93850565 -0.02342987
74.00451660 9.54112720 -20.60985184
71.12142181 8.53028870 -15.29835033
68.80438232 7.71791267 -5.62017250
58.96539307 4.26827621 8.72637749
66.23657990 6.81761932 -4.48721886
56.01882935 3.23518515 22.40267754
61.54033279 5.17107487 -11.73163223
57.77710342 3.85165215 12.83082390
57.97585678 3.92133808 -18.82394791
58.33612823 4.04765224 -13.69658852
73.06296539 9.21101093 -17.57335281
58.04670334 3.94617605 6.48514462
74.46099854 9.70117283 -7.55139923
56.52117920 3.41131496 -4.35564137
62.18258667 5.39625263 -0.86069679
57.36708832 3.70789671 5.27855778
56.38346481 3.36302948 3.41256714
58.79348373 4.20800495 -20.10506058
74.34684753 9.66115093 -8.63499260
56.89149475 3.54115009 -25.22646523
57.06566238 3.60221410 13.23010826
61.33677673 5.09970474 0.99921799
69.31269073 7.89613056 -17.54030418
66.95576477 7.06977177 -24.49710464
72.08826447 8.86927223 -22.99209976
55.87478256 3.18468285 -0.97101653
59.44157028 4.43522835 6.60572624
63.98365021 6.02772331 -16.15719414
57.56940460 3.77883101 -2.55518150
57.68243408 3.81846142 -11.09258175
59.78810501 4.55672836 -9.53318691
60.03800201 4.64434338 -6.63883495
70.14368439 8.18748474 -23.95995522
66.55811310 6.93035126 -15.42324829
66.16008759 6.79079962 -0.39189911
67.93869019 7.41439629 -24.95123863
64.19290161 6.10108805 -0.69342518
59.32015610 4.39266062 -17.53682899
55.81182480 3.16260958 -23.84092903
58.00352097 3.93103600 19.69159889
68.58460236 7.64085770 -12.64587593
68.92164612 7.75902748 -6.81879997
59.80466461 4.56253481 -26.41025162
67.21437836 7.16044521 -11.25247002
72.99166870 9.18601227 -12.62189674
60.10408401 4.66751194 3.52009296
71.06155396 8.50929928 -5.83170319
67.37624359 7.21719551 -19.59348679
68.95485687 7.77067089 -15.84332848
69.11640167 7.82730961 -10.81428051
63.06567001 5.70587111 -19.76375198
56.85428619 3.52810454 -8.39001751
70.17729187 8.19926739 -3.09548759
72.59439087 9.04672432 -9.54379654
79.83224487 11.58438110 -19.32075691
56.10667419 3.26598525 -15.41789436
58.15285873 3.98339486 7.36744213
56.07563019 3.25510120 -11.08075619
55.56310272 3.07540345 9.59620762
57.77434540 3.85068440 15.96917725
71.86886597 8.79234791 -12.47020531
74.38578033 9.67480183 -22.99984741
63.75613403 5.94795418 -16.24759293
65.62570190 6.60344315 -22.09336090
59.32970428 4.39600754 13.66162586
57.80085373 3.85998034 -20.54161453
80.21206665 11.71754837 -19.04454231
66.94651794 7.06653023 -18.59242630
60.59126282 4.83832264 -14.82471848
77.58418274 10.79619122 -19.45889282
81.77969360 12.26717472 -24.19366074
60.90193176 4.94724607 -17.30955696
62.63602066 5.55523157 -6.42264175
77.78688049 10.86725807 -21.80976105
61.83229828 5.27343941 -2.56589222
59.54862595 4.47276449 -21.50426483
77.75640106 10.85657215 -23.11650467
66.49969482 6.90987015 -5.02987957
68.29919434 7.54079151 -20.80368805
55.59995651 3.08832407 21.30606461
57.62589645 3.79863811 -17.09918976
57.57323074 3.78017259 18.73651695
62.58617783 5.53775597 10.02441311
80.91272736 11.96320724 -21.30628967
62.00413895 5.33368826 1.34013271
60.93415451 4.95854235 -1.14364338
72.39884949 8.97816753 -17.11330032
55.53182983 3.06443977 -21.75509453
57.92888641 3.90486836 10.19066811
57.80978012 3.86310911 10.71682358
58.84687805 4.22672510 -25.09746933
58.81325531 4.21493721 -24.98708725
55.79591370 3.15702844 19.02829742
69.23781586 7.86987972 0.34505081
70.59298706 8.34501553 -19.49368858
63.86201477 5.98507690 -22.38837624
58.13922501 3.97861671 -13.92798615
72.17868805 8.90097523 -7.78410530
61.20663452 5.05407524 6.54428864
60.65749741 4.86154366 12.28739357
57.52890778 3.76463246 8.05090427
60.02677917 4.64040852 -9.35070515
62.74044037 5.59184217 -5.33432770
60.19234467 4.69845676 -6.45382690
63.82381439 5.97168350 -20.56680298
68.29308319 7.53864670 2.73699760
70.27799988 8.23457718 -0.35032272
77.43270874 10.74308109 -25.50922775
57.40917206 3.72265148 21.45845032
67.43025208 7.23613358 -24.83043861
55.60562515 3.09031296 -3.16458559
56.25158310 3.31679249 -13.45478725
56.29719162 3.33278179 22.88522530
71.33535004 8.60529423 -18.59454536
66.05360413 6.75346661 4.52287674
60.40781403 4.77400160 5.95462990
62.21382904 5.40720654 -8.43656731
57.83602142 3.87230921 15.35039330
61.16540146 5.03961897 -6.14288616
58.50746918 4.10772514 -5.42856121
67.42810822 7.23537922 -7.50530434
58.19098663 3.99676466 -10.56415558
61.53612518 5.16960049 -22.21585846
66.58012390 6.93807030 -5.33704281
61.36849976 5.11082745 -7.72405815
74.24150085 9.62421513 -21.87057686
66.04522705 6.75053024 -25.16365051
59.02559662 4.28938437 1.21910381
62.23586655 5.41493416 5.15869045
64.38076019 6.16695356 -22.08147240
77.19931030 10.66124821 -22.88998985
77.84915161 10.88909054 -21.74460602
59.51041031 4.45936489 -5.00282240
60.95736694 4.96667957 -3.14669228
64.12957001 6.07888412 -21.12305641
71.27362823 8.58365345 -11.85786438
70.64296722 8.36253834 -6.19739532
61.65708923 5.21200991 15.75885677
67.62982178 7.30610275 -4.80226707
60.41564178 4.77674770 -13.05461597
59.60385513 4.49212646 -0.49258614
56.59629059 3.43764973 -24.99798584
68.78001404 7.70937061 -9.49716473
79.90005493 11.60815620 -24.20146370
56.00380707 3.22991967 -1.88239300
79.25299072 11.38129044 -20.82508278
57.52496338 3.76324987 20.22785759
71.16781616 8.54655361 -25.53246117
70.92011261 8.45970631 -5.56988525
59.45191956 4.43885803 -3.29118156
61.40707397 5.12435150 0.84522152
55.85806656 3.17882156 -26.77680016
74.30247498 9.64559555 -13.97420883
65.84367371 6.67986155 4.49146461
63.16148376 5.73946285 -1.88485527
63.77999878 5.95631981 -5.04372787
76.70918274 10.48940563 -19.55403519
62.86421585 5.63523960 -15.93185997
58.37165451 4.06010628 19.72850418
57.12662506 3.62358785 9.92728710
59.41475677 4.42582893 -24.23338318
74.60772705 9.75261688 -17.04430389
59.23715210 4.36355782 -0.66163397
64.01866150 6.03999662 7.51200867
59.38321686 4.41476917 5.58547497
66.80235291 7.01598454 -19.74603462
69.64929199 8.01414776 -22.50467491
58.78807831 4.20610809 10.83928490
55.30397415 2.98455071 20.23159981
55.67399216 3.11428404 -19.35051537
56.44581985 3.38489199 4.57181835
56.02759933 3.23826051 23.10290909
55.79527283 3.15680456 16.96033096
73.49763489 9.36341000 -11.17668915
68.77328491 7.70701313 -26.51263046
68.00911713 7.43908691 -9.15760136
55.69118881 3.12031317 -5.97123957
60.09093094 4.66290045 -5.20525074
75.18325806 9.95440483 -9.34931946
59.35430145 4.40463209 9.13474655
70.98740387 8.48330021 -15.61120605
76.88515472 10.55110455 -16.12387657
66.27802277 6.83215046 -14.14375114
67.16700745 7.14383698 -13.54502296
72.23815918 8.92182732 -19.46151161
57.01706696 3.58517694 7.08694077
75.77460480 10.16173458 -14.78776932
69.54527283 7.97767639 -22.98312759
68.51367188 7.61598969 -21.79312134
81.23149872 12.07497215 -22.20132065
74.14466858 9.59026623 -19.48771095
68.53984833 7.62516689 -9.21727753
71.78340912 8.76238632 -14.58504868
70.57106781 8.33732891 -0.13080406
69.60975647 8.00028515 0.51904488
56.28429794 3.32826090 14.41566086
57.38896561 3.71556902 -22.57896233
58.42296982 4.07809973 -17.22571945
67.31005859 7.19399166 0.52495575
65.84062195 6.67879248 0.31638718
74.18685150 9.60505486 -13.98461914
62.86872864 5.63682079 3.79196262
55.86342239 3.18069983 -13.89718628
65.27714539 6.48123598 -22.71169662
63.12709045 5.72740650 -25.18460846
71.07883453 8.51535702 -6.12700462
55.98506546 3.22334814 -21.08494568
75.68701172 10.13102436 -14.97523117
59.86255264 4.58282900 -5.53640175
57.81285095 3.86418676 -13.20206070
73.51817322 9.37061119 -6.45433044
63.96832275 6.02234840 -15.16659927
60.75815582 4.89683676 -16.95803261
81.95320129 12.32800579 -24.85609245
62.58308411 5.53667068 -1.35812759
63.21640015 5.75871801 0.78918934
73.11381531 9.22883987 -16.09610176
57.46002960 3.74048281 19.95150375
77.16178131 10.64809227 -25.42965698
59.13581467 4.32802820 1.70881510
65.23290253 6.46572161 -26.49709129
64.18657684 6.09887028 -4.86913109
58.95576859 4.26490211 8.27273941
56.96242142 3.56601787 -7.35015726
71.64611816 8.71425343 -8.70690346
76.69061279 10.48289585 -12.32029343
56.16730499 3.28724194 18.16057587
64.59177399 6.24093628 4.23890495
69.88531494 8.09689713 -7.59200859
59.06459427 4.30305719 17.69485855
69.70690155 8.03434467 -7.26604080
71.15477753 8.54198360 -15.05173779
71.95130920 8.82125378 -9.83920097
60.72449875 4.88503504 17.04400063
64.65052032 6.26153278 -10.95611191
62.09827042 5.36669064 -7.30145264
69.75435638 8.05098248 -18.98603439
56.29504395 3.33202887 1.93127108
80.96377563 11.98110676 -25.06588364
61.12188339 5.02436304 -17.52778244
62.22936630 5.41265488 -1.69374847
61.60692978 5.19442368 5.50357437
73.79557800 9.46787167 -6.70611000
74.89886475 9.85469437 -19.68757439
55.31493378 2.98839450 -0.43233341
58.75517273 4.19457102 -2.37997532
73.07675171 9.21584606 -24.27985764
78.74255371 11.20232677 -24.06014633
73.74267578 9.44932365 -7.68308258
61.13045883 5.02736950 -17.01160049
71.04135895 8.50221825 -10.56072044
62.12825012 5.37720299 -0.17374611
58.59819031 4.13953161 -1.96139193
55.42901611 3.02839160 16.94087601
67.39855957 7.22501850 -19.83766365
62.89119339 5.64469719 -8.96922684
56.43038559 3.37948179 -4.74924612
55.42005920 3.02525067 23.50532913
60.93772888 4.95979500 -6.96141148
61.87191010 5.28732777 -10.83721066
61.40721893 5.12440300 -3.43977165
55.55208206 3.07153988 24.88486481
56.78660202 3.50437331 0.20977783
56.69569778 3.47250319 -19.90919113
56.90981293 3.54757142 23.21677589
81.72088623 12.24655628 -22.23955536
59.48652649 4.45099211 -9.09509659
60.31723785 4.74224615 0.91822243
68.46982574 7.60061455 -13.83313370
73.24263000 9.27400398 -13.79055214
59.12237167 4.32331562 -12.94562531
60.35485077 4.75543261 4.88996029
70.59188080 8.34462547 -0.19430351
58.73980331 4.18918228 1.60529280
63.36891174 5.81218910 -10.95341682
78.59462738 11.15046215 -18.21276093
81.96075439 12.33065414 -24.72985077
82.51242065 12.52407265 -22.98412514
57.46952820 3.74381375 19.76358414
76.58003998 10.44412804 -14.22113228
81.55036926 12.18677235 -20.77862740
66.08096313 6.76305866 -13.08251190
69.18553162 7.85154724 -7.53108978
55.49905014 3.05294561 27.20228004
62.41856384 5.47899055 -16.30026436
56.57855988 3.43143249 -19.44651985
67.11769104 7.12654591 -20.88905525
79.84825134 11.58999252 -17.91095734
65.61750793 6.60056877 -2.26095963
67.37203217 7.21571827 2.64884949
73.47825623 9.35661602 -17.40318298
57.72435379 3.83315659 20.99236679
64.89518738 6.34731770 -23.97962570
55.84970093 3.17588806 -13.01544857
56.04828644 3.24551463 -22.03947639
69.03325653 7.79815865 -14.40339088
76.99087524 10.58816910 -15.16572380
56.96701813 3.56763005 -5.42591572
66.75642395 6.99988174 -26.59084129
59.50291443 4.45673752 -25.23106003
61.81469345 5.26726723 14.11754608
71.71185303 8.73729897 -25.31949997
67.40071106 7.22577286 -7.94310665
57.63356018 3.80132389 2.00187826
56.87219620 3.53438520 -5.80484581
71.46018219 8.64906120 -25.59021187
70.04197693 8.15182495 -11.11501312
73.20127869 9.25950527 -16.68546295
61.33622360 5.09951258 -11.43018341
64.98698425 6.37950039 0.70275879
61.25043488 5.06943417 -24.74014282
55.73055267 3.13411427 -4.62622404
79.02398682 11.30099964 -23.95953178
65.72842407 6.63945484 -1.11806679
63.80949020 5.96665955 2.29571533
67.37763214 7.21768284 -25.67370987
59.03287125 4.29193592 -14.49645996
60.85052109 4.92921972 15.44646645
58.09410477 3.96279693 -5.06601048
57.53055573 3.76521015 17.18846512
56.56459808 3.42653847 -22.02657700
63.55300522 5.87673569 -22.22475243
66.11601257 6.77534676 -13.69171715
66.30527496 6.84170532 -6.30640697
67.50046539 7.26074791 4.49323273
59.81456757 4.56600571 -20.03393173
69.50871277 7.96485806 -25.01696205
76.94414520 10.57178593 -22.02402496
69.56606293 7.98496628 -10.13851738
56.31945801 3.34058857 19.34683990
57.40623474 3.72162318 -6.43797255
70.66829681 8.37141991 -22.66806030
61.41738129 5.12796640 -24.96731949
64.17057800 6.09326220 10.98228455
66.55610657 6.92964935 -19.36423874
68.00242615 7.43674183 -8.93177128
68.57918549 7.63895798 -26.28318977
71.89858246 8.80276775 -24.95293999
57.14746857 3.63089657 13.71910572
74.36688232 9.66817570 -18.28532982
55.72921753 3.13364506 0.19032168
70.38474274 8.27200222 -19.26118660
72.25391388 8.92735004 -16.29850769
69.67654419 8.02370262 -0.44820404
62.56252289 5.52946424 -26.54208755
61.24698639 5.06822300 -3.07062721
60.82068634 4.91876125 -23.23671722
57.46023560 3.74055481 21.91182518
71.90805054 8.80608749 -10.64183807
81.74005127 12.25327396 -21.54736328
58.46419907 4.09255457 -6.40779877
57.65022659 3.80716801 6.11476183
63.19998169 5.75296116 7.69335079
70.27129364 8.23222637 -5.58119583
77.08020782 10.61949158 -15.02011490
64.12821960 6.07840824 -13.91146469
61.92267990 5.30512714 11.23530006
70.89896393 8.45229244 -17.08437157
56.88263702 3.53804517 -21.76765060
55.75246811 3.14179850 -23.29895210
66.81211090 7.01940823 -22.77172852
60.39723969 4.77029419 6.22856236
65.54461670 6.57501078 -10.31287766
65.74384308 6.64486361 -19.21864319
58.70411301 4.17667007 12.23223782
68.21160889 7.51008129 -23.20384979
70.02385712 8.14547348 -7.35392952
56.85504913 3.52837205 -13.55647182
62.56460953 5.53019428 -12.84922314
76.93640900 10.56907558 -19.27587509
68.21530914 7.51137829 -13.99295998
69.11321259 7.82619286 -26.09621048
72.72816467 9.09362793 -7.58302116
66.85771179 7.03539371 -7.42126274
64.61354828 6.24856949 -3.87896442
67.90374756 7.40214252 2.17621994
78.76100159 11.20879364 -23.04810715
59.69641113 4.52457857 13.60998821
66.27127838 6.82978535 -25.70704651
74.07220459 9.56485939 -16.33182144
71.59820557 8.69745350 -14.48450947
64.83179474 6.32508945 -10.50082588
58.62704468 4.14964914 -3.02635145
75.72865295 10.14562416 -23.79043198
81.95764160 12.32956314 -24.18104935
67.91647339 7.40660667 4.00462341
63.77063370 5.95303679 -4.46558952
60.96964645 4.97098637 15.15156841
64.29399872 6.13653421 -22.59822083
68.90193176 7.75211620 -22.53646851
61.71741486 5.23316097 6.41301632
68.31196594 7.54526806 -22.95646095
60.32395554 4.74460220 -12.42011738
56.21691513 3.30463529 9.23103809
66.95911407 7.07094574 -19.22214508
64.02521515 6.04229546 -6.68883705
75.33415222 10.00730991 -9.37516022
57.54201889 3.76923084 -21.11256790
63.42826843 5.83300018 6.38569927
64.74458313 6.29451084 5.55231476
63.91360092 6.00316238 7.28669930
61.57477188 5.18314934 -21.27338219
70.32048035 8.24947166 -8.69573593
71.96222687 8.82508183 -9.32555962
66.91101837 7.05408382 -21.81175995
62.11175156 5.37141895 -21.30634689
67.84262085 7.38071156 -3.13367844
68.37012482 7.56565952 -8.14823914
56.70750809 3.47664309 -15.29067326
67.90474701 7.40249443 -16.43173790
58.42655945 4.07935619 18.80914116
62.27842712 5.42985630 0.16726875
65.89656067 6.69840479 -14.39943886
58.59745026 4.13927221 7.90695858
81.55543518 12.18854618 -22.46931267
59.26373672 4.37287998 -20.01583099
56.26071167 3.31999278 -25.15738678
57.57733536 3.78161287 -7.53674078
78.99394989 11.29046726 -19.92113686
75.72111511 10.14298153 -14.20099831
58.62430191 4.14868879 -21.88461876
72.75051117 9.10146236 -13.82303619
55.45080566 3.03603172 16.93337440
75.94741821 10.22232437 -18.04357719
73.95578003 9.52404022 -22.81846237
60.79712296 4.91049767 16.59659958
63.44141769 5.83761215 -24.93797874
69.28533936 7.88654041 -11.63824081
67.32785797 7.20023060 -14.35563469
59.83129883 4.57187128 -6.70588112
59.84182739 4.57556152 1.43967915
60.53848267 4.81981659 -2.43471718
59.49210739 4.45294857 -24.21907425
68.83399200 7.72829628 2.40702438
79.76057434 11.55925083 -23.41944695
65.55957794 6.58025646 -7.14008904
56.11915207 3.27036095 -7.19653130
64.76373291 6.30122566 -3.66432667
61.15184784 5.03486824 -14.99956417
67.44047546 7.23971748 -3.32102776
58.41037750 4.07368469 -8.57062912
71.00072479 8.48797226 -0.47491056
58.20855713 4.00292253 24.62647438
69.46035004 7.94790363 22.78734589
67.44158173 7.24010324 16.20033836
71.47268677 8.65344429 23.27447701
77.86721802 10.89542389 20.10342216
79.20477295 11.36438274 0.86434460
79.61743164 11.50906563 16.86133385
73.84989166 9.48691559 1.86826921
64.88661957 6.34431171 24.54540443
83.28427124 12.79469013 25.41336632
75.15050507 9.94292068 18.38516235
72.53394318 9.02553082 0.39765489
80.29551697 11.74681091 -7.82839823
70.25653839 8.22705460 7.26179028
65.93373108 6.71143866 26.61318779
83.66891479 12.92955017 2.37074614
72.88411713 9.14830399 21.89303589
70.46578217 8.30041599 11.80331326
83.71794128 12.94674015 -12.57436752
81.89688873 12.30826473 -15.79998398
82.93110657 12.67086983 19.84356308
68.66883850 7.67039156 24.73988724
83.89477539 13.00874138 -4.68416977
80.66857910 11.87760544 17.07655525
70.99935150 8.48748970 9.04018688
83.75282288 12.95897102 -0.45624804
71.01084900 8.49152184 21.81288338
80.77806091 11.91599178 4.08803654
63.97557831 6.02489185 23.16469002
79.05207062 11.31084442 14.50593185
79.62091827 11.51028824 8.06741905
59.29389191 4.38345098 24.62808800
75.27880859 9.98790741 7.56463146
80.59754944 11.85270309 -7.59135056
67.42203522 7.23325062 10.13224792
79.98406982 11.63761330 18.96480179
79.46701050 11.45632458 14.25203323
78.82792664 11.23225975 -10.37040520
83.89695740 13.00950527 -7.85390234
73.59004974 9.39581203 13.82689381
76.95265198 10.57476807 -2.05875421
82.06486511 12.36715698 13.14269543
64.84969330 6.33136559 21.91065788
60.84671402 4.92788506 24.44904900
77.52404785 10.77510738 24.32565498
75.67196655 10.12574863 15.15939236
75.71347809 10.14030552 4.47836256
80.71141052 11.89262581 2.24015284
72.61013794 9.05224609 20.15798187
64.36505890 6.16144896 22.71023560
73.74520111 9.45020866 18.16433334
65.98150635 6.72818756 17.31463242
81.09085846 12.02566147 20.76023102
75.56404114 10.08791161 26.43017387
81.37947845 12.12685299 -0.23694777
75.28649139 9.99059963 11.09579659
79.08315277 11.32174206 22.17586708
82.15863800 12.40003395 -3.46945024
68.99653625 7.78528595 25.58956528
75.45866394 10.05096531 4.53937244
77.54653168 10.78298855 13.46481323
75.72422791 10.14407349 0.85531759
76.85051727 10.53895950 2.37274313
77.29718018 10.69556236 20.92427444
83.76385498 12.96283817 -14.53669262
82.06634521 12.36767578 -8.12735462
64.42089081 6.18102312 22.64559937
69.18972015 7.85301685 15.79248524
77.07335663 10.61709118 -1.27294993
70.66662598 8.37083149 10.24392128
67.51387024 7.26544762 26.00333595
82.22673798 12.42391014 1.59015632
72.46946716 9.00292397 23.57617188
81.29026031 12.09557247 15.02941704
80.98320007 11.98791504 13.33784771
72.69445038 9.08180618 3.16447234
81.02046967 12.00098228 3.86483526
66.00332642 6.73583984 23.19410515
81.10164642 12.02944279 16.37761307
78.41107178 11.08610535 -11.02441120
75.18138885 9.95374870 -5.72754192
74.27542877 9.63611221 21.32462311
76.34501648 10.36172771 7.67571592
64.86042023 6.33512497 12.48571682
78.29451752 11.04523945 1.59913957
70.67712402 8.37451363 22.25529861
80.06608582 11.66636848 6.30117416
83.15451813 12.74920082 -12.88704300
76.44930267 10.39829063 0.90560848
78.06051636 10.96319771 7.03508615
69.00861359 7.78951979 26.20228958
81.79288483 12.27179909 18.11326599
62.38095474 5.46580267 24.57430458
81.16213226 12.05065346 -1.84422779
80.99783325 11.99304581 22.29350662
82.49265289 12.51714230 13.67265224
58.45108414 4.08795500 24.78510475
79.64387512 11.51833725 13.81846809
68.55439758 7.63026810 13.78063869
72.01222229 8.84261036 13.89068508
68.31348419 7.54579926 14.67639732
80.27703857 11.74032974 4.50128603
80.25974274 11.73426628 -10.96345329
57.99662781 3.92861938 26.09152985
72.75512695 9.10308170 22.21729851
80.94927979 11.97602463 12.85573769
78.24524689 11.02796555 13.95721817
72.04972839 8.85576153 20.69540977
82.46575165 12.50771046 19.10508156
77.67807770 10.82911110 0.06795645
74.13522339 9.58695412 15.02831554
81.81665039 12.28013039 -0.13456666
81.04507446 12.00960922 -0.60261387
64.57188416 6.23396158 19.80837250
77.50457764 10.76828003 7.74351645
67.81927490 7.37252617 8.02567387
83.45738220 12.85538673 4.85120773
60.81486130 4.91671610 23.22060776
80.99841309 11.99325180 16.16319847
76.99964905 10.59124565 21.11665535
69.56029510 7.98294258 18.44838524
80.93717957 11.97177887 -4.29880714
73.82096100 9.47677040 20.53779411
71.88433075 8.79777145 23.11066628
78.76082611 11.20872974 0.61061466
61.11702728 5.02265835 26.17351532
75.20127869 9.96072197 -5.95799494
80.12857056 11.68827534 13.82434273
82.69439697 12.58787727 6.14714241
79.59850311 11.50242805 -2.24350619
74.16500092 9.59739685 -0.82794952
65.76345825 6.65174055 21.77510071
80.13651276 11.69106007 -15.96867752
81.85957336 12.29518032 1.03706062
78.95738220 11.27764702 24.57053566
65.37060547 6.51400280 25.35302925
70.69866943 8.38206673 24.79438591
71.01538849 8.49311256 26.02188301
71.29113007 8.58979130 5.55077219
68.19964600 7.50588655 11.57446480
65.72451782 6.63808489 20.61361885
78.70748901 11.19003201 16.03719330
76.45428467 10.40003681 -0.57535112
77.92829132 10.91683769 -8.90533733
68.76564789 7.70433426 22.76768494
68.84829712 7.73331070 27.07345009
81.56596375 12.19223881 -2.46681499
81.13607025 12.04151249 -0.72212535
62.12826538 5.37720823 21.86000252
77.37366486 10.72238064 5.46218300
79.04901886 11.30977631 10.62802696
62.01980972 5.33918238 18.36726952
78.06105042 10.96338463 24.44384003
79.18029785 11.35580444 13.41383457
72.35860443 8.96405602 26.72640991
57.69670868 3.82346487 27.07012558
59.49291229 4.45322943 23.10643196
64.78867340 6.30996990 24.98429489
58.78979874 4.20671225 28.02932549
72.35966492 8.96442795 4.48666859
68.12138367 7.47844744 12.86423397
68.99699402 7.78544664 14.47118473
80.34310913 11.76349449 -11.14372730
60.97240067 4.97195101 18.68180084
83.27748871 12.79231453 18.05979347
69.11143494 7.82556820 12.58410454
80.66590118 11.87666893 -4.59623861
65.99114227 6.73156643 15.68331242
73.48542786 9.35912895 12.23015881
78.19415283 11.01005077 -4.96117926
69.74069214 8.04619026 6.71541739
75.19558716 9.95872879 6.62452507
82.81744385 12.63101959 8.43600941
57.60102463 3.78991771 27.12235832
72.50979614 9.01706696 -2.10035658
75.97755432 10.23289299 19.50141144
82.99146271 12.69202995 13.71108818
74.81497955 9.82528496 -0.34573966
71.32974243 8.60332680 8.67856884
62.89005280 5.64429760 24.89895439
69.86907959 8.09120560 22.56422997
83.03063965 12.70576859 -2.71126270
73.65274811 9.41779327 21.38659477
83.42142487 12.84278107 -11.95714569
78.34419250 11.06265450 5.67038250
64.27933502 6.13139153 19.87147903
80.15707397 11.69827080 -14.79790115
79.60944366 11.50626278 -6.01019478
81.10802460 12.03168106 19.00972366
83.90011597 13.01061249 3.27289319
83.21302795 12.76971149 -6.75862360
75.40460205 10.03200817 -8.79055691
72.93055725 9.16458702 1.09056032
77.16042328 10.64761448 10.23022175
75.49998474 10.06545067 2.40072727
80.12876892 11.68834305 -10.40129089
73.51148987 9.36826706 6.17551041
79.60269165 11.50389671 -8.45637608
76.95600128 10.57594395 13.08152866
82.81015015 12.62845898 -10.51899719
78.22237396 11.01994610 8.64861774
73.26837158 9.28302860 22.30535889
80.71234894 11.89295197 24.71756363
62.61544418 5.54801702 24.27479172
80.95696259 11.97871780 -2.64626551
75.21607971 9.96591187 10.34370899
79.28781891 11.39349937 -10.82738972
67.00869751 7.08833075 9.68221092
68.87728882 7.74347401 24.25381279
80.10147858 11.67877769 18.70837975
77.37894440 10.72423267 -6.00178528
73.98113251 9.53292751 -4.46148872
70.88984680 8.44909573 3.09180021
68.18054962 7.49919367 21.36198807
82.72547150 12.59877110 24.59042168
70.88407135 8.44707203 13.98315048
78.92722321 11.26707172 -10.08047295
79.44311523 11.44794846 -3.86429858
75.89299774 10.20324612 18.49628067
76.81694794 10.52718925 8.68694115
65.83629608 6.67727757 15.93922615
79.13780212 11.34090233 -7.36797953
70.74961090 8.39992714 2.83290458
74.85146332 9.83807182 -3.00156641
83.27362823 12.79095840 -1.58102930
78.65913391 11.17307663 -1.77085805
76.60794830 10.45391273 20.60068703
72.92579651 9.16291714 -4.09897995
72.82565308 9.12780857 12.57379150
71.00997162 8.49121380 -0.51419520
66.29252625 6.83723545 24.66465759
70.43096924 8.28820896 22.93045998
78.87076569 11.24727821 -6.01163197
78.22478485 11.02079296 -12.35343266
81.14828491 12.04579449 3.58062243
80.61302948 11.85813236 -16.21421242
72.65687561 9.06863117 -3.25667548
71.98336029 8.83249092 23.80194283
66.93336487 7.06191730 26.02135277
67.37591553 7.21707916 8.99025059
81.24051666 12.07813358 -8.60464001
62.19866562 5.40189171 20.72406387
68.03884888 7.44951105 22.24841881
75.83515930 10.18296719 -6.38542271
58.89768219 4.24453545 27.44660187
75.40573120 10.03240395 6.31266594
63.04501343 5.69862652 14.45187283
80.70687103 11.89103317 11.59968948
72.19952393 8.90827942 16.90307617
76.14830780 10.29275894 19.05139542
72.22362518 8.91672897 19.82327843
62.86439514 5.63530254 22.82160568
81.83777618 12.28753948 -14.79053783
62.96947098 5.67214108 26.04415131
79.95539856 11.62755966 0.97662240
82.11433411 12.38450146 20.76180840
62.32894516 5.44756889 22.54748535
69.44118500 7.94118118 19.79369736
71.65293121 8.71664143 18.47773743
74.73451233 9.79707050 15.37657356
83.65189362 12.92358398 13.57711697
77.89016724 10.90347099 2.20117474
73.96900940 9.52867889 4.86226368
63.93546677 6.01082897 14.15244198
81.11327362 12.03352070 -2.10773230
80.99198151 11.99099541 25.65507889
70.38304138 8.27140427 10.67195892
82.67188263 12.57998276 -1.33319283
71.49400330 8.66092014 -0.23108803
80.26553345 11.73629379 7.16138887
73.99383545 9.53738213 16.67575645
82.96341705 12.68219852 -14.93322659
77.84204102 10.88659859 17.30854988
81.70864868 12.24226379 -20.63353920
82.13495636 12.39172935 -5.31249666
71.30494690 8.59463215 6.89697361
80.22570801 11.72233200 -3.09275508
69.75430298 8.05096531 17.32830429
68.58757782 7.64190102 9.29731274
74.13764954 9.58780479 12.07960987
80.90581512 11.96078396 -9.58138847
70.38108826 8.27072239 22.44556046
83.19894409 12.76477623 9.12432289
80.53414917 11.83047485 10.88878632
68.39469147 7.57427120 16.48659134
83.26335907 12.78736019 -20.79443932
63.04140854 5.69736481 25.31126976
64.94492340 6.36475229 24.33794212
66.27703094 6.83180141 18.16625786
82.78008270 12.61791801 -4.02172232
82.21187592 12.41870117 -21.47930336
66.31261444 6.84427643 19.69828796
63.50056076 5.85834694 15.19510555
71.00712585 8.49021721 8.94016266
82.12583923 12.38853264 4.61781693
74.43138123 9.69079018 9.09029007
81.86647034 12.29759789 13.47357845
76.82152557 10.52879715 -10.46373272
81.72610474 12.24838448 10.18498993
81.15016937 12.04645634 13.57275677
76.51251221 10.42045403 13.96467304
75.40741730 10.03299522 14.96966839
62.68713760 5.57315302 20.70516968
80.43866730 11.79699802 -11.85438633
69.32068634 7.89893532 15.93577957
67.69021606 7.32727814 8.48326778
83.87339783 13.00124550 4.10647774
71.84479523 8.78390884 4.55565596
69.58137512 7.99033260 8.80860233
82.45112610 12.50258160 0.84690118
66.82940674 7.02547026 19.83319855
80.01429749 11.64820862 21.54021263
60.18416977 4.69559050 25.65514755
70.75823212 8.40295219 18.57545853
82.11222076 12.38376236 -12.75860500
76.68261719 10.48009300 22.24809265
67.35066986 7.20823050 16.08094788
76.96817017 10.58021164 -7.37119627
65.09992981 6.41909885 25.87512207
62.47406769 5.49844933 16.69775391
73.35080719 9.31193161 24.68656921
60.12943268 4.67640018 23.05323982
72.17825317 8.90082073 14.92706394
83.05765533 12.71523857 11.09601974
79.27409363 11.38868713 -0.73170549
69.97354126 8.12783337 5.58246040
71.87981415 8.79618645 -0.76621681
75.84897614 10.18780899 8.04305267
79.85543823 11.59251308 23.04386330
71.93667603 8.81612492 6.96416044
75.48918152 10.06166363 -1.11795533
65.41229248 6.52861786 18.26806450
67.52764893 7.27027988 8.22734737
79.41806793 11.43916702 -12.92838573
78.09396362 10.97492313 25.33689499
83.91868591 13.01712418 24.46470261
68.29216003 7.53832340 7.74481440
82.58436584 12.54929829 -19.69242477
80.56018829 11.83960342 13.96425629
82.49919891 12.51943970 -12.71688843
74.35013580 9.66230392 22.09113121
63.29223633 5.78530598 20.98851776
80.96862793 11.98280907 -12.89925480
75.39994812 10.03037930 -3.46341681
77.54498291 10.78244781 2.02615356
76.40142822 10.38150787 24.69956779
69.04068756 7.80076504 25.41987610
83.88542175 13.00545979 -14.47957706
70.56992340 8.33692837 3.54738116
83.16794586 12.75390720 -20.09751892
73.79378510 9.46724415 18.82703781
69.12388611 7.82993507 15.52275276
69.45672607 7.94662952 25.38262177
75.46562958 10.05340767 11.51703453
83.15399170 12.74901199 -16.10079575
78.08250427 10.97090816 19.88727188
83.32107544 12.80759525 -21.74070740
80.69769287 11.88781643 -15.83665180
67.61524200 7.30098915 24.60151863
74.42255402 9.68769646 -6.44840574
77.64576721 10.81778240 11.89440823
83.47061920 12.86002922 -22.20608521
69.43712616 7.93975973 5.29945898
57.90719223 3.89726186 27.00440216
76.27870941 10.33848095 0.46533191
79.08923340 11.32387543 16.13149643
78.60273743 11.15330315 16.72521210
78.25418854 11.03110027 -3.42419481
81.48821259 12.16497707 0.32779336
77.51123810 10.77061462 -9.23188591
78.47789001 11.10952950 17.41437340
62.00664139 5.33456421 20.24335670
64.74612427 6.29505205 24.13523483
74.74977875 9.80242252 25.43629456
72.35800934 8.96384621 11.93429565
68.41323853 7.58077621 14.46464920
67.12302399 7.12841320 12.66508865
65.56924438 6.58364534 12.20229340
79.96363068 11.63044453 17.94852257
78.44766235 11.09893227 18.60068321
62.59995651 5.54258680 25.81314468
69.89443970 8.10009766 26.81008720
76.43095398 10.39185715 25.51989937
77.56524658 10.78955173 16.63678169
83.50910950 12.87352180 -14.88745594
67.81251526 7.37015676 7.73889971
78.94409180 11.27298546 20.66937637
78.49574280 11.11579132 5.26299953
73.60066223 9.39953232 8.75763607
67.48238373 7.25441074 5.82790279
73.03785706 9.20220852 2.54445481
73.85221100 9.48772907 -4.19409657
79.33272552 11.40924454 -7.03909159
67.99622345 7.43456650 12.61467075
81.88179016 12.30296898 5.22874308
80.10020447 11.67832756 -0.59628654
82.57218933 12.54503059 15.76059055
60.12704086 4.67556047 20.43564606
71.32518768 8.60173130 14.89832115
80.83644867 11.93646336 2.45775747
64.60821533 6.24670076 17.26097298
80.43988037 11.79742241 24.85698318
60.39572144 4.76976299 22.42108536
80.70392609 11.88999939 9.65246964
81.05526733 12.01318359 -5.00005388
79.63046265 11.51363468 -12.49024391
74.09916687 9.57431412 11.00952339
66.16558075 6.79272652 14.40559292
78.02444458 10.95055008 22.86393738
68.27144623 7.53106213 13.77565670
67.26890564 7.17956161 7.80283213
62.95755768 5.66796589 16.64924812
82.53140259 12.53072834 20.69933510
81.34845734 12.11597824 25.28700066
68.07953644 7.46377754 25.26352692
62.59408569 5.54052877 22.90804672
67.92174530 7.40845346 8.84903431
82.24497986 12.43030739 -10.85631466
60.92824173 4.95646906 26.04571342
78.56439209 11.13985920 9.56723785
57.06472778 3.60188556 28.04214478
79.29161072 11.39483070 17.05553627
80.39109802 11.78031921 6.27988577
72.99927521 9.18868160 22.90005875
64.46325684 6.19587803 23.09825516
